1969.896 -1084.062 0.5492841
2318.726 -1100.073 0.4694261
1866.408 -718.7938 0.585857
1942.787 -659.4802 0.653307
1868.349 -626.0435 0.5800353
2242.917 -559.0197 0.5713167
2480.867 -278.464 0.8879246
2282.338 -119.4022 0.9268955
2495.006 -0.0378179 1.074096
2346.578 196.2979 1.288076
2478.961 471.9027 1.574961
928.6424 -1091.356 0.3600254
1165.84 -1088.804 0.5205132
1517.423 -1089.491 0.6478422
1472.622 -823.3582 0.5828143
1253.232 -509.4311 0.6415546
1458.872 -533.186 0.661291
1915.994 -11.02157 1.019263
1660.244 156.6541 0.899723
2142.685 174.1615 1.137717
1947.777 303.1266 0.9625575
2164.613 401.6145 1.335037
1718.326 478.005 1.065704
2209.98 743.0916 1.634931
2411.71 744.468 1.781174
2312.225 1037.719 1.943026
2594.147 1030.833 2.281293
157.004 -1041.489 0.9339557
628.5421 -1078.466 0.6556167
293.8501 -769.0594 0.8636761
633.652 -765.2363 0.6666848
992.4373 -680.3502 0.6510108
629.8925 -493.297 0.8809007
1017.825 -349.6928 0.6650421
1209.599 -102.3021 0.7102235
965.4279 145.1747 0.8039911
1304.507 303.2299 0.9242839
1149.62 538.6637 1.01452
1405.44 752.5122 1.25699
1769.29 757.5013 1.376975
1660.162 1054.631 1.669382
1985.322 1050.475 1.79
-220.8706 -1022.916 1.024596
-430.6892 -884.458 1.046248
-127.5943 -780.4509 0.9340013
100.7896 -348.4915 0.8567611
359.9966 -440.4345 1.079094
94.05218 -75.79813 0.8874231
217.9933 -143.9816 0.8497737
291.125 -64.71853 0.9510621
639.747 -81.79195 0.849912
41.30371 43.03081 0.8633846
153.5003 15.47914 0.8455887
181.1879 137.0717 0.8673995
289.4635 31.96116 0.8300495
372.4161 42.83132 0.913568
65.58808 165.9674 0.9631964
135.7337 231.6666 0.9147378
267.6096 197.7583 0.8528531
555.369 215.2429 0.8585105
471.8344 470.5329 1.016657
564.625 596.7567 1.023654
833.882 644.1587 1.025284
609.6998 798.0856 1.077355
1137.571 806.7756 1.228535
806.9149 1063.592 1.300402
1245.33 1044.375 1.497504
-752.8808 -817.2229 1.291266
-647.0608 -870.8741 1.15981
-1094.739 -753.8459 1.408032
-622.8824 -663.5313 1.2065
-440.7253 -718.0375 1.068758
-898.5506 -468.0362 1.255958
-793.4544 -599.5458 1.27275
-532.398 -577.0314 1.083565
-668.1647 -353.2967 1.043993
-622.8663 -437.9391 1.091436
-497.0106 -391.0238 0.9545825
-654.4064 -20.93256 1.018077
-487.4009 -66.30881 0.9022963
-619.1915 113.2595 1.009874
-38.44354 93.2921 0.79476
-601.5908 260.2561 1.073923
-359.2919 295.1136 0.922058
-199.6021 268.862 0.7622541
-146.1405 253.6142 0.765419
-240.9086 402.5798 0.8737881
-216.1414 319.6351 0.8539479
-188.7697 429.7522 0.8887023
-137.4915 337.8604 0.8484237
-115.2067 413.807 0.8763037
79.10996 457.0694 0.9305262
-83.25977 734.715 0.9456349
279.6259 619.1556 0.9620192
260.2579 813.901 0.980096
88.19048 1069.146 0.995062
419.0146 1074.827 1.111955
-1696.497 -971.1568 1.531165
-1551.449 -998.6541 1.410695
-1655.515 -768.8785 1.251013
-1481.593 -795.157 1.195581
-1800.38 -719.8458 1.35527
-1640.446 -635.8392 1.211033
-1318.911 -752.5404 1.237873
-1510.675 -583.4658 1.09301
-1222.495 -520.8906 1.190971
-1297.275 -289.953 0.9960544
-923.5354 -72.21448 1.116377
-1319.715 41.29602 0.8140065
-1185.464 75.68334 0.8694109
-1010.933 152.8232 0.9587234
-889.0453 70.38741 1.05519
-1160.911 273.0793 0.8661734
-719.503 397.6087 1.07375
-1149.902 495.8559 0.8469712
-939.509 498.4273 1.030146
-702.8447 614.9906 1.119512
-874.6344 680.9435 1.051656
-424.0689 733.9142 1.022247
-863.5385 883.9152 0.9509226
-575.8978 816.4632 0.9963366
-432.4503 889.1981 0.987278
-911.3068 951.5789 0.9248645
-578.843 969.9161 0.9354026
-342.7305 1070.509 0.8990086
-2483.423 -966.219 1.829588
-2330.935 -973.4836 1.6948
-2107.137 -963.1012 1.677545
-2499.456 -794.6524 1.676688
-2137.803 -836.8445 1.72809
-2303.02 -733.8844 1.6243
-2060.646 -681.3935 1.488841
-1756.151 -447.4063 1.216783
-2027.644 -201.0218 1.177432
-1650.726 77.27024 0.8230921
-1989.616 261.7903 0.9112301
-1957.671 456.5215 0.8088739
-1838.619 427.6816 -1.184379
-1763.657 421.3019 0.8150985
-1492.721 378.5996 0.6256012
-1339.423 453.7695 0.6976783
-1566.136 507.6951 0.6783605
-1384.328 561.4577 0.6951446
-1782.277 643.5297 0.7136686
-1574.131 727.463 0.6837235
-1406.988 734.2128 0.6497221
-1302.662 868.1969 0.6965707
-1089.033 796.9629 0.8191684
-1194.967 1003.587 0.7201484
-2509.185 -117.0656 1.40218
-2581.19 106.4896 1.244826
-2366.773 59.75664 1.186673
-2363.335 316.7165 1.032638
-2167.791 309.865 1.006576
-2612.383 413.5298 1.101624
-2337.194 504.7956 1.023215
-2055.477 583.7853 0.7750181
-2615.5 672.7734 0.9889668
-2497.992 726.4102 0.8927353
-2436.808 669.6152 0.9073757
-2280.199 689.4799 0.8293069
-2500.197 817.2903 0.8852815
-2285.077 842.6289 0.8172686
-1937.745 951.1598 0.666417
-1693.825 1056.488 0.5732689

